# .PCD v0.7 - Point Cloud Data file format
VERSION 0.7
FIELDS x y z normal_x normal_y normal_z
SIZE 4 4 4 4 4 4
TYPE F F F F F F
COUNT 1 1 1 1 1 1
WIDTH 586
HEIGHT 1
VIEWPOINT 0 0 0 1 0 0 0
POINTS 586
DATA ascii
0.06624555651 0.004160027779 0.3414015341 -0.03838904773 -0.9823459837 -0.1830919151
-0.1539404837 0.364761381 -0.0210036173 0.00104099373 -0.1625827773 -0.9866943584
0.06557997231 0.7746612765 0.3084598457 0.07863393536 -0.8345291096 0.5453236374
-0.3242572333 0.3736843474 -0.002143090942 0.7340320759 -0.002439090728 0.6791104199
-0.03503107992 0.3896067608 0.185854384 0.0973307 0.5229009262 -0.8468183726
-0.2354437572 0.005734365516 0.3074675417 -0.1352246059 -0.984249586 -0.1138729928
0.2013910535 0.9698273606 0.02667240673 0.01004777807 -0.01988408646 0.9997518018
0.06446103549 0.347011955 0.1489642406 -0.3159473077 0.5545275644 -0.7698548428
0.4601263138 0.3437394832 -0.004245923296 0.00441974398 0.02915550618 -0.9995651166
-0.3702267569 1.014536359 0.4465184443 0.9237735422 0.1723222995 0.3419758293
0.174344164 0.8696945859 0.02557836375 0.08375462265 0.3637171947 0.9277364742
-0.3267355063 0.9331541551 0.2496485424 0.9999631544 -0.007402067682 0.004347320529
0.0716745478 0.7481766999 0.2855220001 0.1885731059 -0.606230746 0.7726088703
-0.1002231771 -0.002867087999 0.4340454968 0.0291768101 0.9942266611 0.1032572523
-0.3664466959 1.067514703 0.4068946069 0.9171637692 0.1664205264 0.3620978166
-0.1989358529 -0.0003385078399 0.3560947134 0.01691675249 -0.9975178797 -0.06835132109
-0.3309537452 0.2813143495 0.01135777469 0.9026493782 0.02703131278 0.4295269586
-0.2034585424 0.8066771907 0.2579282617 0.03678689326 0.9639763691 0.263431745
-0.1341281839 0.1896270959 -0.01683513165 0.121864539 0.00379552235 0.9925394844
-0.1967366668 1.048970066 0.02455849483 0.05918308362 0.1225752335 0.9906930275
-0.3301679017 0.8747369597 0.09601823154 0.9288894229 -0.28686341 0.2342516252
-0.08823410756 0.9178704292 0.04390786521 -0.06362978027 0.2357989356 0.9697165117
-0.2246577033 0.2783019082 -0.00853103449 -0.03059599965 -0.0416948567 -0.9986618165
-0.3320414201 0.3075885879 0.08666163831 0.9997243843 0.02194361298 -0.00834465674
0.1016886243 0.9457858327 0.02725447585 0.02644682796 0.006794370149 0.9996271314
-0.361982147 1.012502581 0.4211623486 0.9226129856 0.1698617337 0.3463123883
0.3638970104 0.1832636972 -0.009160033735 0.005772759278 -0.003204616592 0.9999782026
-0.3291275796 0.3273337526 0.1946210025 0.9998595259 0.00440493409 -0.01617173542
-0.225084073 0.7376773475 0.2886255233 0.6414775233 0.340003728 -0.6876801961
0.2646148248 0.2151312317 -0.00729148279 0.03025063534 -0.01707674398 0.9993964598
-0.3378929884 1.191300084 0.2040364355 0.9948659372 0.09598480031 0.03207312219
0.221156992 0.8834427446 0.0243464902 0.05578319488 0.2537221562 0.9656672836
-0.222322144 0.4402287526 -0.02430511702 0.07410396646 0.08670702611 0.9934739522
0.1176223197 0.2339715593 -0.01614561563 0.05780749519 -0.01239456566 0.9982508043
0.2702859059 0.8075125223 0.1426139112 0.06054875379 0.9949237438 0.08037781108
0.2658105738 0.5200927831 -0.02187743262 0.03900491518 0.07845970566 0.9961539495
-0.08583258654 0.7240383503 0.1530808856 -0.2966675295 -0.8382837065 -0.457459074
0.2664538681 0.07862539113 -0.003986264894 0.08899079693 0.3494625435 0.9327146234
-0.3417635771 1.060028857 0.3487791693 0.9562970355 0.1275841638 0.2630936357
-0.3373169795 0.5775556108 -0.003180025218 0.7786547464 -0.01471086267 0.6272801419
-0.3380977427 0.6283292096 0.1921156248 0.9921127642 0.015086001 -0.124437437
-0.3273039526 0.1074561911 0.2439242992 0.9976598517 0.06655176349 -0.01567427935
0.4583197072 0.6217390516 -0.008830964766 0.09719122824 -0.04402558825 -0.994291513
-0.264647349 0.7682473996 0.2819463203 0.04447172083 0.8699584788 0.4911155783
0.1586565152 0.7436457257 0.336686994 0.3053728585 -0.5735461579 0.7601264514
0.2768900994 0.7833952461 0.2319522205 0.8094086166 -0.5277565196 0.2575475632
-0.02601638398 0.8846937118 0.05842850666 0.004337568403 0.4455047056 0.8952690896
-0.181600329 0.9557737281 0.0365647787 0.04812941531 0.03760679773 0.998132901
0.2655928171 1.30908645 0.001274986023 -0.1163149803 -0.2471855352 -0.9619616087
0.3192426344 0.1778424624 -0.008419733128 0.01405656863 0.005820723721 0.9998842593
-0.329517547 0.4736313908 0.4666740456 0.9996191166 0.007195475528 0.02664295069
0.1726444783 0.02943143321 0.01879519921 0.009712280263 0.6916008043 0.7222146489
-0.0828179582 0.7754087115 0.2945339626 -0.1322624716 -0.7963274395 0.590228132
0.06731750359 0.4721147304 0.2318794107 -0.5233283939 0.1958057255 -0.8293295545
0.3144988116 0.9597710058 0.02498349863 0.09006344398 -0.00937306681 0.9958919227
-0.3283300085 0.1246748211 0.1585912487 0.9991422286 0.03827623355 -0.0158030697
-0.0973602772 0.7261305633 0.2966523304 -0.1244165019 -0.4718612972 0.8728501877
0.006725029436 0.7726424572 0.3556084704 -0.04360952764 0.7270966695 -0.6851486279
0.07370991321 0.01626614757 0.03421542006 -0.09498656033 -0.8550350022 -0.5097967226
-0.07416777265 0.5285078473 0.1150341327 0.9880273923 -0.153393113 -0.01650530217
0.4331855002 0.001306443825 0.2858560339 0.001309974208 0.9839273996 0.1785641515
0.2040895548 0.947216727 0.02605456765 0.01175851751 -0.0184138263 0.9997613056
-0.3049072127 0.002938921933 0.4475817116 0.6073057186 0.7867849202 0.1102236521
-0.327482118 0.3870309616 0.4472259462 0.9999561404 0.009260797243 0.001398164715
-0.233070382 0.7744727368 0.3030024934 -0.002484849291 0.7797694377 0.6260618576
-0.3267203987 0.08021437549 0.01201064057 0.592065634 0.3624647316 0.7197760787
-0.02660169158 0.8262334494 0.0848812859 -0.01975885382 0.3248076493 0.945573677
0.07157414156 0.8679357918 0.03281905049 0.1731245574 0.4198675976 0.8909203601
-0.3389975379 0.5776411486 0.1565332523 0.9933287685 0.06018606285 -0.09836460527
-0.2887730583 0.9255466283 0.08375006317 0.7231757301 -0.3941236624 0.5671714045
0.06013387678 0.01630348828 0.2469185129 0.01433736874 -0.9988953684 -0.04474911004
0.06830476616 0.7830281723 0.3481107909 -0.01422095016 0.8065138927 -0.5910440809
-0.0932216885 0.7302026714 0.2536694035 -0.3411228201 -0.7701855263 0.5389336477
0.4458132813 0.002710167182 0.2830851031 0.009281212491 0.9834740241 0.1808112359
0.2639715965 0.01267971918 0.2501485209 -0.03077728381 -0.975386446 -0.2183438567
-0.3276384813 0.1700057062 0.3502115496 0.9997626163 0.007579359764 0.02042705056
0.4058820217 1.239731647 -0.02740440412 -0.1992671945 -0.2000257648 -0.9593134413
0.1637282258 0.7508910604 0.1517361548 0.5388695365 -0.788935982 -0.29529585
0.2642275002 0.4730083783 -0.01575757215 -0.03155598127 0.1001762159 0.9944691779
-0.08330493876 0.2583911064 -0.02199999988 -0.04977359123 0.0490574073 -0.9975549912
-0.2903629121 1.081233157 0.02392157337 0.4846216536 0.353192274 0.8002481305
0.3126830935 1.053090685 0.02486861637 0.1687064642 0.02219813061 0.9854163445
0.3755562931 0.635114532 -0.01511435686 -0.08843181798 -0.04974951011 0.9948390824
-0.3294785803 0.8730638336 0.1526325406 0.9868737357 -0.147673337 0.06536677568
0.01320960636 0.7815423034 0.09546339842 0.05911224733 0.3341791164 0.9406540599
-0.1859924381 0.8161921571 0.08721048968 0.07130077475 -0.8811666472 -0.4673986942
0.03403236987 0.343464524 0.1510455672 -0.1563290555 0.5242955231 -0.8370635764
0.3175137155 0.3712761305 -0.005369498685 -0.005993123706 0.02339569269 0.9997083195
-0.3280356935 0.3180421552 0.3478286522 0.9999767187 0.002133826124 -0.006481421437
-0.07748982389 0.52376371 0.142040812 0.9649745174 -0.0227966136 -0.2613512869
0.1597404763 0.5229936656 0.0328612634 -0.5050553968 0.2849696488 -0.8146848135
0.383643634 0.01429999992 0.05821063464 -0.0356967385 -0.9635895728 -0.2649922227
-0.3306549082 0.5183837553 0.2082092048 0.9985157138 0.02977841068 -0.04560280219
-0.3295392166 0.2632441796 0.1622874229 0.999826443 0.004847279288 -0.0179885441
0.4125827849 0.07380437144 -0.004698606463 -0.06156881017 0.4082174978 0.9108061024
0.07098020013 0.3750119526 0.04178596326 0.8419330703 -0.2175171896 0.4937964939
0.06232782544 -0.01691568465 0.4411800634 0.05600854809 0.9828498074 0.1756966094
-0.3403117297 1.225556298 0.1122036858 0.9920724003 0.1248319365 0.01446859643
0.09380123079 0.7922556185 0.3802180409 -0.06157255572 0.6995479025 -0.7119280529
0.07356712911 0.2902629556 -0.01016483919 0.3866424819 -0.187907025 0.9028834594
0.4602791907 0.7642764963 -0.00779699428 0.08810546488 0.001215909659 0.9961104099
-0.3320331317 0.7737579503 0.1013767889 0.9943096623 -0.05560662063 0.09086362914
0.1170615352 0.8420979508 0.04314639796 0.08794095674 0.5365309134 0.8392859865
-0.03571711894 0.7056811501 0.1876022794 -0.1075451231 -0.9339442528 -0.3408550706
-0.3284868846 0.2317895489 0.2477088172 0.9999246366 0.004555309596 -0.01140045202
-0.08405095242 0.8039647376 0.361135379 0.1143895799 0.6091733968 -0.7847437777
-0.2815228211 0.2217329943 -0.004094744898 0.3494488386 -0.01564847371 0.9368247619
-0.3502209268 1.017501025 0.3986701776 0.9218849086 0.1542535762 0.3554350144
-0.2261962613 0.8941991848 0.02265353502 0.004006572443 -0.08743726067 0.9961619712
-0.3376658837 0.4774379296 0.1088100229 0.99446075 0.05120693866 -0.09179142753
0.04730552875 0.2822929534 0.02920430817 -0.4702410208 0.178014042 -0.8643982781
0.4193211381 1.18377075 -0.007086652493 0.07491393435 0.1629734251 0.9837822753
0.2223460358 0.01877159713 0.2040146865 0.01330350327 -0.999689431 -0.02107269203
-0.3476767017 0.571820508 0.05302050181 0.9976905876 0.00245879417 0.06787816804
-0.286935992 0.45702066 -0.02212619627 0.407191932 0.1278249916 0.9043536377
-0.03501388703 0.8029252284 0.3764854305 -0.01595054635 0.8267788855 -0.5623008576
0.229419727 1.188036788 0.023097294 0.0288718271 0.1296334382 0.9911415587
0.0136127924 0.01448236409 0.247089169 0.01724400757 -0.9993340048 -0.03215884032
-0.0346879591 0.7091078572 0.1465322865 0.1467356705 0.8776850933 0.4562209114
-0.1326692927 0.9309792666 0.03358426104 -0.07104423393 0.1340161998 0.9884292463
-0.2440971892 1.030449226 0.04310797796 0.2923453389 0.2110867467 0.9327253552
0.2790258364 0.1234742565 -0.007854525837 0.03208975706 0.07410421656 0.9967340732
0.1110642955 0.4168053912 -0.02654787181 -0.6099089279 0.3251306815 -0.7227040471
-0.07222975248 -0.003748454944 0.4234327581 0.04860170715 0.9900370313 0.1321535117
0.4122966928 0.01693610915 0.09872637832 0.01420375196 -0.9997034464 -0.01978061619
0.1933384677 0.008798384039 0.2893068593 -0.0463956501 -0.975864368 -0.2133920778
0.02211539251 1.134794008 0.02393713161 -0.0269150596 0.08067250528 0.9963772009
-0.2308271378 0.8232016124 0.01695087035 0.4236341244 -0.2894751626 -0.8583345845
-0.3292334404 1.077139477 0.09944053599 0.9417309268 0.2497135825 0.2253574679
-0.286340176 1.057867603 0.02709506165 0.4511864248 0.405959053 0.7947503113
0.2573812612 1.224046394 0.0179139045 0.04494438027 0.1473097991 0.9880687354
0.3235654984 -0.008852952176 0.3416874523 0.008413544206 -0.9797809643 -0.1998961586
-0.3306760026 0.7198083613 0.2239992223 0.980655848 -0.1917681852 -0.03923099495
0.1203843475 0.01747303959 0.1979310638 0.01007447745 -0.9997406091 0.02042594914
-0.07614349577 0.5177690604 0.185483889 0.8825648507 0.01144363533 -0.4700514095
-0.1846960875 1.264935344 0.002966119648 0.009893734391 0.2092835731 0.9778049397
0.4078429257 -0.02237615685 0.3989488947 -0.001879762081 -0.9907871409 -0.1354153164
0.1952611879 0.696188896 0.2704067806 0.6339984555 -0.5202319805 0.5721928388
-0.07996137188 0.4861070316 0.1551385195 0.9645353321 0.04064886666 -0.2608050282
-0.3350347908 0.4858657308 -0.009500523831 0.7142560634 0.0837671313 0.6948534691
-0.3276565133 0.4806800859 0.3523359691 0.9999334254 -0.002073241781 -0.01135105748
-0.1376160622 0.8764649012 0.03414961396 -0.1375464098 0.3169266539 0.9384234019
-0.2760004249 -0.001954330076 0.3976001861 0.212144751 0.9739707054 0.07984779025
-0.09270679636 0.8107595297 0.09029901962 -0.06813577588 0.4901277929 0.8689834651
-0.3203010216 0.1237842532 0.009495000218 0.73600634 0.1066744183 0.6685171919
0.1092423333 0.4759705781 0.1483227862 0.9939853317 -0.09506595914 0.05436564876
0.1693022888 0.7766529499 0.1063738188 0.3212029038 -0.7602501823 -0.5646665874
-0.3274978638 0.5831490986 0.3376196077 0.9999624016 0.002748949883 -0.008224272792
0.3154526991 0.5764017906 -0.02095588175 -0.06352372842 0.01555011821 0.9978591733
-0.3580365242 1.3073752 0.2417221217 0.944387184 0.3002788799 0.1340352233
-0.3287723347 0.1807071219 0.1905081435 0.9998804465 0.00913580961 -0.01247516205
-0.3448084511 1.281904926 0.03646844076 0.9068785169 0.01175441968 0.4212281913
-0.3308954317 0.1212216232 0.4068144353 0.9993425253 0.01809601599 0.03141737165
0.114350958 1.180328517 0.02206597867 -0.02230723662 0.1308531496 0.9911507657
-0.07911756004 0.731003237 0.3404443823 -0.1936785988 -0.5538704302 0.809763019
0.2326848629 0.8203253004 0.1479073592 -0.2633910828 0.9285122116 0.2617063437
-0.05014900587 0.2413007904 -0.02195291005 -0.01753447782 -0.001313384635 -0.9998453966
-0.190632125 0.6600540899 0.2046641158 -0.4641631526 -0.7446727559 0.4795988473
-0.3455812209 0.5165202889 0.04904771213 0.9658904786 0.04840860165 0.2543859088
0.07494695672 0.1459934533 -0.003035679539 -0.0482792032 0.06977524237 0.9963937646
0.1777080719 0.2649591199 -0.003892428069 0.06906638507 -0.006790214952 -0.9975889572
0.2238182951 0.3392631722 -0.002326788479 -0.02843341796 0.04109669884 0.9987505204
-0.3262512888 0.820084945 0.2920045002 0.9398052729 0.2745973127 0.2033773954
-0.1926151905 0.01027686911 0.04159742758 0.08374948603 -0.8891061953 -0.4499735515
0.1996802511 0.795917677 0.1017017944 -0.1561301406 0.8419429484 0.5164837372
0.07000608615 0.1661574391 -0.004925310213 -0.07012150139 0.08555514607 0.9938628135
-0.2845082871 0.9743745635 0.1058145738 0.7885732594 0.03210621159 0.6141021135
-0.08731345939 0.01173206854 0.1544317252 0.01834895879 -0.9995998438 0.02152830744
-0.326982308 0.6175654233 0.3549409976 0.9999696008 0.004861239824 0.006096379312
-0.1342009507 0.4183240825 -0.0279613767 -0.05143873481 0.1138002705 0.9921711319
0.3733352808 1.120579351 0.001113717252 0.168580185 -0.007568772105 0.9856588836
-0.1842356086 1.205073356 0.01363476036 -0.0004921892721 0.1332955609 0.9910762086
-0.08402340271 0.02497173844 0.01371463683 0.04778606799 -0.8737629925 -0.4839986824
0.1693309916 -0.0100167314 0.343311498 -0.06591126179 -0.9759079496 -0.2079888928
-0.3480689495 1.214991776 0.2980823182 0.9607004261 0.1527534067 0.231778101
0.3102296905 0.8288898083 0.01242070647 -0.3485959224 0.04919990002 -0.9359809041
0.1252247473 1.015249049 0.02826424209 0.008135676218 -0.0180600235 0.9998038039
-0.08538538955 0.642292926 0.245291047 0.06495702867 0.3545890814 -0.9327631895
0.2317093727 1.030108 0.02827432764 0.0271403702 -0.02514649024 0.9993152928
-0.342752093 0.6357739765 0.1544218333 0.9938270198 0.05028891321 -0.09888821922
-0.2931139132 0.774323553 0.01466315669 0.7275620369 -0.3986022058 0.5583634695
-0.2269329645 1.168886693 0.01527121333 -0.01302305752 0.09252463795 0.9956252264
-0.3301843534 0.4683452668 0.2022635767 0.9985805501 0.02224327173 -0.04839547388
0.3176121494 0.01594352143 0.1079073468 0.005330678456 -0.9999533903 -0.008049918286
0.4506376261 0.9773196739 -0.01738918695 -0.2485310964 0.008395310966 -0.9685875349
0.06781048777 0.4258220482 0.2062777568 -0.427513081 0.4001517562 -0.8106239187
-0.3302196816 0.1779761137 0.09824301032 0.9996944224 0.01470659499 -0.01986902023
0.02507813273 0.9738970534 0.02876400858 0.05311658997 0.09331454866 0.9942188003
0.1204282198 0.7297860201 0.1986493689 0.3397330415 -0.9014532407 -0.2682601635
0.2520120079 0.3307011818 -0.004082200486 0.007337888646 0.02341205443 0.9996989702
-0.3281712395 0.6660269307 0.3931298919 0.9998033274 0.01212329798 0.01569496975
0.4111541031 0.574382569 -0.01154290315 -0.1136641009 0.05065221794 0.9922272043
-0.3314940522 0.5716442075 0.1984416219 0.9950354236 0.04224037553 -0.09011246518
-0.1792631859 1.30228322 -0.009934659335 0.00630253244 -0.25389313 -0.9672117434
0.4196897088 0.7237295804 -0.004583706888 -0.03523862199 0.1132254938 -0.9929442215
-0.3454851835 1.271028883 0.1534151754 0.9879380741 0.1532510376 0.02219191569
-0.2452015378 0.0110101503 0.2025068055 -0.1233477209 -0.9921518764 0.02049375458
0.2109838294 0.7876655657 0.2145225872 0.4020524805 -0.9117864066 -0.08366212787
0.1796145616 0.5281984458 0.007157597994 -0.4081387918 0.1002565651 -0.9073981198
0.1255320264 0.7818799747 0.358925932 -0.1099747022 0.6996523905 -0.7059689068
-0.3365523115 0.3249312629 0.048719248 0.9073048896 0.09764066885 0.4089793847
-0.2301018008 0.9221377034 0.02405357267 0.1074224243 -0.2068769941 0.972451712
-0.3277393509 0.284724151 0.3581570567 0.9999979935 -0.001995742043 0.00017295
0.1035119859 0.4235764905 0.1483620672 0.978149309 -0.2066273026 -0.02300189389
-0.140737989 0.07011329646 -0.0106778155 -0.07669824195 -0.4148060164 -0.906671577
-0.3286260968 0.6760316122 0.2964646244 0.9998735893 -0.007572164936 -0.01398097844
0.1551910539 0.4810082745 -0.00595738059 0.3410776598 -0.3663045721 0.8657291669
-0.1264741081 1.11912542 0.02116392178 -0.02028993251 0.06981045151 0.9973539089
-0.3256463878 0.3239975107 0.00725330473 0.7198795666 -0.1291410364 0.6819794735
-0.07266828243 0.6733949789 0.291029835 -0.1683253091 -0.6064878284 0.777070849
-0.003451886727 0.6527313946 0.271412606 0.1051891202 -0.4042480941 0.9085806114
-0.3328998533 1.130805889 0.1988193791 0.9962745081 0.08487287368 0.01528724435
0.4648295682 0.008996635068 0.229530972 0.01321755408 0.987132836 0.1593551388
0.2813863086 0.003823334558 0.286702262 -0.0203079834 -0.9737676521 -0.2266365935
0.4216787645 0.6713053845 -0.01054404091 0.06971089587 0.0460846374 -0.9965021812
-0.2282956517 0.007265414198 0.1043685076 -0.1015264526 -0.994284019 -0.0330404147
0.01823831774 0.01321396167 0.1585997672 0.02518635003 -0.9994095684 0.02337011835
-0.2961434694 0.002751033656 0.3986796233 -0.5326990919 -0.8429956225 -0.07476669021
0.3784282791 -0.02193292078 0.4033796985 -0.00936789473 -0.9901125224 -0.1399622649
-0.1752920079 0.12518192 -0.01088047503 0.1073829941 0.07530635761 0.9913616117
-0.1172143647 0.006915543516 0.3091829304 0.02824561628 -0.9968633841 -0.07392955151
0.06972371597 0.6767194535 0.2935110184 0.08619315517 -0.5167348311 0.8517956647
-0.3189843724 0.03802377849 0.3113679989 0.8830673658 0.4623285697 0.0802765289
-0.3292251199 0.1317182149 0.1033398351 0.9992082708 0.03907361217 0.007488958295
-0.131887885 0.6719208515 0.279030721 -0.3156621095 -0.5525086708 0.771421805
0.01006352155 0.4334536235 0.2173470939 -0.05466933412 -0.3963572047 0.9164672554
0.07634055025 0.3669207342 -0.001870372379 -0.496689082 0.05137950399 -0.8664064302
-0.1741515047 0.01092141354 0.2436929586 0.01434678374 -0.9993280065 -0.03372988604
-0.3311037239 0.8087904948 0.09968871547 0.9664836913 0.06714121127 0.2477929219
0.2653671391 0.823590515 0.01394259718 -0.6192975044 -0.03430671736 -0.7844065592
0.06486806662 0.7104588385 0.1488289972 0.2653451056 -0.9384678156 -0.2210659043
-0.1297725728 0.7396734252 0.2500159912 0.8163936039 0.4536907406 -0.3573040659
0.3053933746 0.6779358342 -0.01785796511 -0.06475145796 -0.07001969518 0.9954418572
0.01650370144 0.7740316743 0.3092254924 0.1112972824 -0.7769173854 0.6196872527
-0.3253262609 1.229257807 0.01233092485 0.3403598505 0.1454635498 0.9289755259
-0.3295438273 0.6242249356 0.2533584651 0.9979822015 0.0007675942699 -0.06348965426
-0.02411480056 0.7347831677 0.1036505731 0.1024723652 0.6216117508 0.7765940031
-0.3280794696 0.1731227036 0.2550804405 0.9999117289 0.01009901307 -0.008633903207
0.2816814255 0.7769205356 0.0006902778565 -0.07779789705 0.3161734991 -0.9455061109
0.2291778373 0.7853489096 0.3001492957 0.7279094729 -0.5090179283 0.4594002045
-0.3290962243 0.2778629515 0.2102083983 0.9999483477 0.002045134412 -0.009955875413
0.3794470382 0.01530809112 0.2045919553 -0.002655566644 -0.9929467182 -0.1185316951
-0.3274521922 0.545569245 0.3477940597 0.9999397006 0.0002740220683 -0.01097816105
0.3295879271 1.019438086 0.02174598817 0.2015698868 0.003254016893 0.9794687295
0.3532158745 0.6784618311 -0.01362631581 -0.07653620868 -0.09397260225 0.99262851
0.3111849852 1.129063264 0.02348410303 0.196984046 0.03490295634 0.9797852159
-0.3277007158 0.682569259 0.3394126377 0.9999943713 -0.002189382519 0.002542453587
-0.1868698805 0.3833516083 -0.02162805102 0.07619514257 0.1180964023 0.9900745123
-0.3477620144 1.268459902 0.2430437476 0.9728037349 0.2052298878 0.107394537
-0.3448525605 1.256829947 0.2121512157 0.9852038689 0.1600078505 0.06140703979
-0.1760793357 0.3966804703 -0.02423969007 0.08291993343 0.1251385715 0.9886681054
-0.176804911 0.4316842608 -0.02615183001 0.07171077437 0.08431581649 0.9938553255
0.3273326124 1.182780829 0.01528061202 0.2020724377 0.1114719221 0.9730060331
-0.3303264471 0.6567014868 0.4525903005 0.9988612117 0.01523455016 0.04521269901
0.4179814875 0.4326812516 -0.002724615548 -0.04440346511 -0.009398452111 0.9989694697
-0.3503409524 0.9207687475 0.4456464556 0.9381429147 0.1567701438 0.3087247861
-0.09148841274 1.041322406 0.02574354049 -0.01469567405 0.0534763664 0.9984609734
0.3623659641 0.9682858239 0.01331974886 0.3129074631 0.01385248958 0.9496825933
0.1000998564 0.4342504598 0.1865612899 -0.6951911965 0.264327102 -0.6684612057
-0.3292840958 0.6846195071 0.258043597 0.9846456693 -0.1662079869 -0.05336488599
0.3673629919 1.272246681 -0.01533917476 -0.2727174074 -0.2208984651 -0.9363915227
0.2958630457 0.7868178206 0.1609445768 -0.5088193142 -0.8586948699 -0.06120478741
-0.3237780025 0.06056262354 0.2513942172 0.8917760417 0.4510830832 0.03549004861
0.2691518146 1.131148578 0.0278579661 0.08964942356 0.06627859732 0.9937656305
0.1709016688 1.257714425 0.01137997643 -0.02231228932 0.1467117888 0.9889276074
0.266297575 0.624542232 -0.02012734208 -0.03263161008 -0.02881083506 0.9990521077
0.01336025454 0.4758929778 0.2352783476 -0.09926085797 -0.1830515661 0.9780794478
-0.3266459823 0.1276550927 0.3132389994 0.9987860836 0.04392332271 0.02229576228
0.3201351463 0.0176351369 0.1382838208 -0.006405070727 0.9998566026 -0.01567639152
0.2434481346 0.9915004106 0.02664830925 0.02099172437 -0.01640669438 0.9996450209
0.2254025524 0.2288790061 -0.005288235595 0.01650505718 -0.01620347288 0.9997324795
-0.3272243164 0.7770867582 0.2430244849 0.9932378864 -0.05562533025 -0.1019035017
-0.1485369822 0.7402203359 0.3294096317 -0.08810244624 -0.630721828 0.770991527
-0.257620559 0.7980512842 0.03471812208 -0.1048829597 0.9138803843 0.392201744
-0.3283706685 0.3787838106 0.2862254273 0.9999513869 0.00150235106 -0.009745091015
0.1252022631 0.3173432249 -0.01478719361 0.2556300313 0.05687096176 0.965100503
0.324590379 0.01103798927 0.2432534841 -0.04550420409 -0.9868470385 -0.1551202435
-0.06362361953 0.3853388439 0.1715563825 -0.1931499845 -0.4720073091 0.8601756702
0.05958307374 0.7105812273 0.1916871062 0.05937399262 -0.9808929926 -0.185266473
0.3710672156 0.3111823608 -0.006122914956 -0.005500990582 -0.02840636682 0.9995813211
0.02204045731 0.00358724745 0.3471247577 -0.05501868345 -0.9839538768 -0.1697283497
-0.03901344337 1.071463823 0.02700246545 -0.02377861627 0.04783260199 0.9985722906
0.4130180882 0.01588978195 0.05697162713 0.0692116748 -0.9475856945 -0.311915206
-0.3270288632 0.5243783952 0.398137509 0.9999531557 -0.001523373454 0.009558547551
0.2424153425 0.9733082821 0.02571897459 0.01986816789 -0.01808089811 0.9996391034
-0.128555916 1.091281717 0.02415018231 -0.01568494613 0.06266157518 0.997911574
-0.1772135809 0.9301497775 0.03221823139 -0.0005568219794 0.02613589151 0.9996582442
-0.3271373073 0.5679273599 0.3930094066 0.9999705732 0.004655454949 0.006097501309
-0.009314768312 0.8631971221 0.07718425407 0.08265320501 0.4131014632 0.9069264738
0.2822111653 0.7868421004 0.2116338617 -0.05930414685 0.9858897789 0.1565386917
0.4613045413 0.01693800678 0.05344304572 0.2381109517 -0.9107446245 -0.3374128089
0.1139786844 -0.01528428251 0.4085631459 -0.08154014379 -0.984873372 -0.1528909616
-0.3300008917 0.7767734394 0.3965130621 0.9969459016 0.03546960293 0.06957568894
-0.2264951619 0.7212731736 0.2681847691 0.1306850862 0.2073364936 -0.9695014114
-0.3323360819 1.122478056 0.09877852802 0.9689744418 0.1269265548 0.2120806
-0.3269272224 1.020003867 0.2504085037 0.9990891217 0.03066985985 0.02966962498
-0.02423919784 -0.002427371384 0.4036358575 -0.06456967893 -0.9858225308 -0.1548699274
0.3562356783 1.02337858 0.01530524881 0.2761546517 0.03847908518 0.9603426307
-0.2046858501 0.2282312636 -0.006936557627 -0.09247077811 -0.03618564956 -0.9950576636
0.323524029 0.5198444445 -0.01807276391 -0.06413830359 0.07729412648 0.9949431622
-0.3402719649 0.7293512224 0.0934533759 0.9797781159 -0.1956140704 -0.04207111915
0.05384200116 0.03292329301 0.008295417399 -0.02554447401 0.7739663646 0.6327112662
0.06473145273 1.277438279 0.003448317409 -0.02818669061 0.2272518173 0.9734280261
-0.3293596397 0.3957482879 0.2060690763 0.9997567553 0.006495258527 -0.0210770469
0.2560151715 0.8190495892 0.09225870948 -0.006906323968 -0.9090297148 -0.4166740695
-0.03948436632 0.9200290562 0.04248093605 -0.04687566346 0.3314953202 0.9422916347
-0.130690179 0.8280842135 0.05796317885 -0.03775644359 0.5905491398 0.8061179594
0.00582329604 1.22963712 0.01395700032 -0.004504288992 0.1798963129 0.9836752655
-0.1650036686 0.6939969959 0.2839000526 -0.2392170128 -0.5224138633 0.8184491287
0.02283805559 0.7257749582 0.3433742608 0.07036848181 -0.6216002137 0.7801675788
-0.1801919536 0.3261829518 -0.01013518967 0.1041199672 0.08415662349 0.990997828
-0.3249734247 1.026247171 0.1129837141 0.931689639 0.2479430583 0.2654781655
-0.3284123868 1.070852377 0.1957600683 0.9988163444 0.04719499111 0.01177043055
0.1162671406 0.2734148546 -0.01463569215 0.1549192825 -0.06828664031 0.9855642803
-0.1379751776 0.7182225323 0.3165322643 -0.1687228821 -0.5191599598 0.8378576999
0.1571353352 0.2242443577 -0.009241886329 -0.07233124254 0.03331014107 0.9968242703
-0.3268376684 0.8824938372 0.254306502 0.999993933 -0.002537430425 0.002386502722
0.2596614146 0.01979536344 0.2197558719 -0.02685652094 -0.9932367084 -0.1129582591
-0.06843538216 0.3463121318 -0.01182652058 0.0993246456 0.004324235889 -0.9950456853
0.06434632914 -0.01166494875 0.4015653102 -0.06318654893 -0.9804940865 -0.1861150353
0.1635951811 0.6727760541 0.2632704415 -0.2482814411 0.7604725364 0.6000315387
0.1065248226 0.5748242486 0.1563360055 0.9581903681 0.06644738529 0.2783091149
0.02188968576 0.01494925945 0.2169096154 0.03377095258 -0.9992994392 -0.01612927577
0.07007876171 0.7342893519 0.3472875004 0.04429211153 -0.7088093152 0.7040082127
0.1572197216 0.7450911746 0.2189969654 0.4859739055 -0.8446473767 -0.2244998268
-0.1371345218 0.9809724736 0.03439215292 -0.01458058432 0.1118757364 0.9936152304
-0.3358665745 0.5194297898 0.1507088094 0.993664986 0.0508157592 -0.1002379875
-0.05180967843 0.5715590395 0.2191167856 0.4353072384 0.1841013332 -0.8812572311
0.4537543419 0.9263195388 -0.01555433308 -0.2847372884 -0.04241545628 -0.9576667508
-0.1743451758 0.02985357362 0.009276464701 0.03193148098 0.6253878555 0.7796604458
-0.2867500825 0.014024956 0.1994025948 -0.6190437299 -0.7820466689 -0.07202685679
0.308356464 0.01989417307 0.1992791348 -0.02043494037 -0.9976569857 -0.06529128726
0.2787868214 1.024819098 0.02732950859 0.0571096451 -0.01009947774 0.998316828
0.2168918721 0.06744800748 -0.001197189907 -0.05257415946 0.3785934614 0.9240686926
-0.3697229208 0.9834122356 0.4513107672 0.9237735422 0.1723222995 0.3419758293
0.4554958241 0.01992167109 0.1517151603 0.02363014835 0.999419401 0.02454540854
0.2204195686 0.01514921532 0.05216905379 0.0870750854 -0.9232231565 -0.3742685304
0.2143949171 1.222578881 0.01777507562 0.004687642461 0.1471467132 0.9891035693
-0.2246198321 0.808492476 0.1926556312 0.01342464484 -0.9987750791 -0.0476247871
-0.3261650162 0.9220075437 0.1066703181 0.8461150605 -0.370977932 0.3827070399
0.1758229233 1.177101832 0.02403545747 -0.01763612488 0.1084256907 0.9939481056
0.1228889461 0.7398203677 0.1112660688 0.3583463597 -0.7530784733 -0.5517795751
0.01655429784 0.7254151186 0.2637219918 0.3223746426 -0.7897903108 0.5218293349
0.2661122935 0.8676524549 0.02245144109 0.1305566428 0.1584682988 0.9786944167
0.4158034552 1.022095529 -0.01134903456 -0.2820276824 0.03244353944 -0.958857551
0.410709843 0.8779990512 -0.003910101516 0.2583895608 0.03386414331 0.965447075
0.2937394723 0.7896704106 0.1806879287 -0.2843509898 -0.9445607264 -0.1641631771
-0.369383766 1.130002761 0.3913084637 0.9081319138 0.1642958963 0.3851016561
-0.3320939967 0.1774457564 0.4558727408 0.9990269538 -0.01627824274 0.04098980858
0.4228498624 -0.002407158869 0.3049649633 -0.01850480107 -0.982807875 -0.1837015328
-0.3264754661 1.013911082 0.2018171066 0.9999485948 0.009094235571 0.004483601174
-0.3262313493 1.080060732 0.04758614959 0.6269157676 0.3435415637 0.6992537553
-0.4316652068 1.27582844 0.3163901843 -0.3639085421 -0.4930404299 -0.7902415501
0.2754269279 0.01779267534 0.1458693059 0.01288935783 -0.9991711526 0.03861181542
-0.1332775804 0.7849629043 0.2993276946 0.5328442539 0.5486166425 -0.6442800483
-0.2684552331 0.03495009227 0.01147823385 0.3088130321 0.5446491374 0.7797383076
0.06602646731 0.8259670541 0.08161142208 0.1403048208 0.4339801162 0.889930231
-0.3076911757 0.860015249 0.02677368355 -0.4796800363 0.2289529215 -0.8470464111
-0.2780703322 1.282292562 -0.000180295081 -0.1329186791 -0.08416326172 -0.987547047
-0.3284964044 0.2741816964 0.2574110652 0.9999349832 0.003148580022 -0.01095973307
-0.1330763287 0.2305204076 -0.01644397651 0.1098228636 -0.0001708408322 0.9939511605
0.1633838958 1.139641555 0.02799596906 -0.002986821991 0.07910672075 0.9968616783
-0.1911964758 0.2612065208 -0.008263163058 0.0895066158 0.02091008673 0.9957667066
-0.3285101629 0.8218926959 0.3562718643 0.9966317345 0.02198425546 0.07900555846
-0.1830231059 0.007787159105 0.09006272895 0.0209096919 -0.9938466699 -0.1087730736
-0.3243493992 0.08188682457 0.3041201243 0.9661411626 0.2573306197 -0.01876715741
-0.2901487755 0.8585172879 0.02411772188 -0.4833021686 0.2099758556 -0.8498994963
-0.1335807145 1.16328399 0.01692003755 -0.01472958504 0.09232719013 0.9956197714
-0.3287236679 0.4804393466 0.2548301039 0.9997743201 0.007165067807 -0.01999926657
0.4025626597 0.3324147604 -0.005019357326 -0.007736802708 -0.02681321051 0.999610521
0.1133175429 0.7248683265 0.1542262439 0.3530779984 -0.8879412937 -0.2947815904
0.4518667184 1.074251223 -0.007248554117 0.08228136348 0.1833240689 -0.979603013
0.2659511232 0.8151892711 0.04937537142 0.4582902532 0.7990114269 0.3892952396
0.06276443116 0.7292585442 0.1035604417 -0.1522379964 0.6332450908 0.7588308425
-0.3426579434 0.8086905865 0.4663987605 0.9868732795 0.08794635645 0.1354495054
-0.1867385904 0.01097109296 0.1914546077 0.01079170823 -0.9997055878 0.02173192779
-0.03951153742 1.221193897 0.01448473359 -0.031461519 0.1655065224 0.9857067332
-0.3265627138 0.9758530559 0.2083009277 0.9999751865 0.0009847285751 -0.00697543451
-0.3451496491 0.8743203134 0.4475941526 0.9824938568 0.08092529641 0.1678002317
-0.2229837203 -0.001431409282 0.3673733712 -0.00600716323 -0.9971096721 -0.07573780966
-0.09253460763 1.28261534 -0.0005593599736 0.02060583057 -0.2450328696 -0.9692957714
-0.3273194417 0.4861223016 0.4059227485 0.9999073714 0.0007553137381 0.01358962939
-0.0901510714 0.783497628 0.3417988957 0.1784039795 0.5895818644 -0.7877596367
-0.3656500373 1.174353888 0.357808008 0.9170193518 0.184219501 0.3537494647
-0.006793057103 0.8042597334 0.3671073406 -0.01740231464 0.7091857409 -0.7048068845
0.4181149902 0.01870424407 0.2026145857 0.008400194508 -0.9912250001 -0.1319182927
0.1110512123 0.016358211 0.255151584 -0.006268344978 -0.9939268023 -0.1098645504
-0.3319387006 0.7368744076 0.4451105979 0.9959850194 0.0522391108 0.07269743015
-0.1774951972 1.091728927 0.02428237944 0.03168610877 0.08968439934 0.9954660713
-0.2305979835 0.02777433289 0.01262482051 -0.08952551675 -0.7168708877 -0.6914342429
-0.2797284523 0.01014460299 0.05398007163 -0.4297257271 -0.7972859281 -0.4238761002
0.3616939737 -0.01074224381 0.3503538327 0.001886642179 -0.9848636345 -0.1733206915
-0.1677481596 0.08115273704 -0.01290565443 0.07524756089 0.2998814498 0.9510041644
-0.2906658147 0.1737876111 0.0001045673108 0.4644862998 0.02977289867 0.8850796867
-0.275254175 0.602717577 -0.03431291426 -0.2740234835 -0.02851499451 -0.9613001745
-0.1397016251 0.133403099 -0.0138972047 0.1169419937 0.04398556346 0.9921642204
0.2107516126 0.0332031812 0.01408970853 -0.05882737977 0.6829543298 0.7280884031
-0.241301631 0.2218304198 -0.00459712108 -0.1367065948 -0.06072672582 -0.9887484876
0.319624878 0.8755170631 0.02293989166 0.1708981241 -0.02964608756 0.9848425969
0.2987702296 1.070828222 0.0264862398 0.1468396548 0.01781186491 0.9889999258
0.2057635737 0.1090585213 -0.004445671272 -0.0006120597114 0.1325104492 0.9911814194
-0.2818263472 1.126054645 0.01825135004 0.2867437875 0.1374082547 0.9481017729
0.0148381914 0.7037707468 0.1935397791 0.3854012371 -0.895682618 -0.2218525055
0.1563943675 0.810668949 0.09087270232 -0.1422982299 0.6917706661 0.7079580208
0.3257162618 -0.001107691389 0.3071055772 0.004007690558 0.9766869503 0.214631171
0.4514071429 0.4190968391 -0.002757329275 0.01301891273 0.01780882467 -0.9997566472
-0.3294820988 0.2205211282 0.152272 0.999772294 0.009567948571 -0.0190739234
0.2452903615 0.8027554199 0.2921292296 -0.1628837594 0.9862654405 -0.02737447337
-0.2972483503 0.7703842733 0.1479645164 -0.6203079991 0.7734107148 0.1305903993
-0.3388046717 0.5278236869 -0.005854121448 0.7219481897 0.06486631705 0.6888999726
-0.3216677369 0.04063652854 0.1013332752 0.7482742918 0.6630232332 0.02204033713
-0.3279225561 0.06247685822 0.4051577292 0.9592666759 0.2817157154 0.02106419417
0.2330359555 0.5817128101 -0.02338868593 -0.158138464 0.01381263495 -0.9873203317
0.1117347103 0.01140071749 0.3036003766 0.04997653559 0.9775022024 0.2049189843
-0.3299876802 0.1724884376 0.4033091119 0.9990883875 -0.007604776304 0.04200668219
0.4292518009 -0.01247208432 0.3694376072 0.02072508185 -0.9854940356 -0.1684398313
-0.3616969218 1.130997718 0.36532596 0.911991927 0.1853934098 0.3659235011
-0.0483597378 0.7179663376 0.3108733385 0.03368331478 -0.5907300543 0.8061658869
0.4143957987 1.073203777 -0.008522558529 -0.211123803 0.006273493718 -0.9774391966
0.4581164759 0.7324888191 -0.00711970799 0.09651942173 -0.03392200277 0.9947528834
-0.07949626064 0.0109092767 0.1020483147 -0.03716307957 0.9975814207 0.05873852664
-0.3319141459 1.122417266 0.1462076323 0.9978834565 0.0649336057 0.003497733813
0.3084166836 1.262452372 0.006135383495 0.2089144989 0.2135131771 0.9543410582
0.3720436737 0.8247121759 0.004692009752 0.1422191661 -0.08729035629 0.9859787536
0.2233780543 0.7150598644 0.2453761045 -0.6222650631 0.778896602 0.07814265524
0.2600609513 0.01442714263 0.05133907303 0.104022602 -0.9386460388 -0.3288204861
-0.3318126714 0.183619732 0.06442992865 0.9778351655 0.05230013711 0.202738957
-0.2889135118 0.3791561934 -0.01122432978 0.5003831682 0.1361685098 0.8550291351
0.3200245152 0.1290595677 -0.008116386779 0.01408920364 0.02862303945 0.9994909784
-0.3291339066 0.09525062863 0.3718322719 0.9971476341 0.06493616344 0.03846934597
0.2637253114 1.161431007 0.02732870125 0.07811310066 0.08530332723 0.9932883196
-0.327292915 0.1204641116 0.34426651 0.9980592152 0.03906671047 0.04849324835
-0.13677509 0.3286890433 -0.01794412135 0.02366887304 0.04810073149 0.9985620181
0.1815720311 0.1642870995 -0.003730376622 -0.02638034215 0.05405880772 0.998189222
-0.3182112 0.03654086906 0.1999334854 0.807024104 0.5884795669 -0.04902953123
-0.2759559189 1.045328948 0.0411614152 0.5087101219 0.3496980014 0.7867180688
-0.3276855691 0.4276286378 0.4500081673 0.999954121 0.006343052745 0.007177849611
-0.06818612203 1.057200986 0.02692681048 -0.02548431761 0.04450630955 0.9986840031
0.457239798 -0.01894999664 0.402898007 0.04299484202 -0.9917496073 -0.1207648958
-0.1479615484 0.7664403534 0.2730940905 0.4152394754 0.8080331312 -0.4179218072
0.233660289 0.8130870301 0.2108375702 -0.1798869375 0.9836871464 0.0005364195322
-0.3352800425 1.169525959 0.1102571523 0.9971523789 0.07264937151 0.02022874336
0.01617743397 0.6288851448 0.2405156725 0.04759875779 0.3625051099 -0.9307654933
0.3782982132 1.08133072 0.0014719762 0.256063819 0.03606910122 0.9659867186
-0.3386457074 1.206399579 0.2069511198 0.9923791973 0.117254383 0.03788058147
-0.286580697 0.01069407643 0.2928533257 -0.4949805984 -0.8676130176 0.04734827309
0.01436403277 0.01288257153 0.05545624328 0.04769621216 -0.8791243493 -0.4741997995
-0.2358394333 1.285828727 -0.003295968971 -0.04022598227 -0.2228981117 -0.9740114487
-0.3305437475 0.7646174646 0.1497123766 0.9923570482 -0.119391872 -0.03119406688
-0.03777758945 0.8471338032 0.0714639151 -0.07057338837 0.3693432389 0.9266093938
-0.3288269323 0.06628839269 0.05568092006 0.9110644319 0.2928773507 0.2901455813
-0.3274454054 0.7261224917 0.2505291906 0.9343044555 -0.3492714565 -0.07130662017
0.1295580874 0.01411655033 0.04763195347 -0.02501055489 -0.9000996282 -0.434965667
0.1096177255 1.065993761 0.03003573245 -0.0007106714912 0.002485565908 0.9999966584
-0.02208495133 0.008444869236 0.3047233505 0.005026405025 -0.994972347 -0.1000238171
0.2726330089 0.6708872062 -0.01904725086 0.03796676827 0.04883527752 -0.9980849864
-0.02964892394 0.7792373441 0.3111160844 0.0007731388248 -0.8268759646 0.5623838026
-0.3312448513 0.125421369 0.4428320711 0.9995637761 0.0180381424 0.02338552718
0.087418061 0.4630843714 0.08854358749 0.9536340789 -0.2844761325 0.09826176111
-0.3434369331 0.9733906712 0.3946369817 0.955094529 0.1215728439 0.2702119247
-0.3280280735 0.2340701834 0.2838853894 0.9999559312 0.003496942362 -0.008712462593
-0.3324683389 1.082912478 0.2936211868 0.9845235818 0.1186363988 0.1289911695
0.2086821313 0.8174682519 0.09231805321 0.05731386962 -0.836668724 -0.5447022734
0.1614835676 0.9764798345 0.02769829886 -0.01171871575 0.01757735906 -0.9997768292
-0.3284173424 0.6203936492 0.3087216837 0.9998605804 0.002112977735 -0.01656366866
0.3601382197 0.07604419338 -0.004923347298 0.005823556075 0.3602825041 0.9328250658
-0.1733609706 0.7717011835 0.1548857861 -0.5287504755 -0.7899702915 -0.3104349742
-0.3288833598 0.8689859452 0.3479181869 0.9955786128 0.03772371541 0.08602410745
0.2692798517 -0.01157983454 0.345545302 -0.006946830474 -0.9794584813 -0.201526239
0.0629023863 0.6553960244 0.2696351461 -0.04251955823 -0.3327880307 0.9420425754
-0.1284295753 0.01254740697 0.2454349509 -0.02608230925 0.9993902329 0.02321369277
0.09895811479 0.3909833225 0.1635179276 0.7741648726 -0.5609904098 0.2931868178
0.0159455766 0.5756599428 0.2284951414 0.02176428145 -0.1506430493 0.9883486165
-0.03042185134 0.656208267 0.2737962223 0.120754057 0.5199190472 -0.8456374176
-0.3266310371 0.9775588385 0.2590405584 0.9994810165 0.01080675622 0.03034652726
0.4543609061 1.158285549 0.03061901471 0.2115030063 0.001415817564 -0.9773763215
0.2664485074 -0.01880194881 0.3948967443 -0.02288528521 -0.9946227329 -0.1010043709
-0.3309744398 1.112736242 0.05337812929 0.8323058268 0.2401254116 0.4996066427
0.0146341244 0.6827249181 0.3062357895 0.1805343924 -0.5515216176 0.8143901021
-0.3410643254 0.5205401924 0.1035515445 0.9934610952 0.06033485389 -0.09692655864
-0.02939574936 0.003265839203 0.3585161754 -0.01999198188 -0.9890204055 -0.1464204841
0.2177598448 0.4167447758 -0.007995254499 -0.01227034284 0.01808659409 0.9997611284
0.07722939847 0.3746371262 0.1571625353 0.7022313791 -0.6553508065 0.2781841306
-0.1270347046 -0.004178590611 0.4451653796 0.03615334603 0.9944334543 0.0989698975
0.4180411136 0.7672330098 -0.0009797559127 -0.1093683149 0.03314986468 -0.9934483671
-0.3270592418 0.927042524 0.2933352886 0.9986506007 0.02446944728 0.04580637402
0.02063146006 0.8835886393 0.0542590287 0.1922731088 0.3893579702 0.9007948838
0.06975738439 1.182549325 0.02021731637 -0.01729117492 0.132561001 0.991024014
0.16375238 0.3289928573 -0.007340372222 -0.06591694224 0.08205476451 0.9944455603
-0.3314742386 0.4789528488 0.1570032811 0.997039187 0.03734853692 -0.06721566992
-0.3274569665 0.9773393101 0.298125697 0.9953294922 0.04175018564 0.08704093228
-0.02995558817 0.6778857259 0.2998271426 -0.04364269915 -0.6230461841 0.7809665596
-0.03083868207 0.1828089616 -0.0273668688 0.04341872809 -0.01079372554 -0.9989986534
-0.2778976222 0.7698231056 0.2562087732 0.1695454773 -0.5601637014 -0.8108458292
-0.3316124917 0.2197212962 0.4475991066 0.9992286654 -0.0182343369 0.03477906221
-0.03834575708 0.6334229881 0.2426480377 0.1448089266 0.4482454081 -0.8821034117
0.08355620224 0.417081502 0.05108531595 0.8542659393 -0.3949360879 0.3380165551
0.1600968917 0.01331116861 0.1049552942 -0.01552583232 0.9997433551 0.01649764993
-0.3293185042 0.5283162077 0.4528273239 0.9991371027 0.007124584252 0.04091809199
-0.3312770078 0.2818525072 0.09843510986 0.9994193182 0.01740149212 -0.02929529881
-0.04557014381 0.1398776743 -0.02624192732 -0.02436065274 0.1263771122 0.9916831067
0.2183067566 0.7433126363 0.2959334245 0.6288184272 -0.6188793948 0.47071826
0.2581225291 0.03518745042 0.01289040938 -0.05404169575 -0.5823891911 -0.8111117834
-0.3291666505 0.1743699541 0.152740628 0.9997503703 0.01187609127 -0.01892499982
0.307829596 0.9321804771 0.02457267493 0.09012295938 -0.03272217681 0.9953929432
-0.0809910411 0.7368012629 0.1102849786 -0.291123554 -0.759439762 -0.5818060881
-0.2850683958 1.02626124 0.08835867888 0.7720014479 0.3403023627 0.5368501339
-0.3275564869 0.08775240021 0.2021147776 0.9886702191 0.1498654317 -0.008458740275
-0.3319970405 1.117410108 0.2454265958 0.9929905 0.09427067535 0.07129450677
0.06858456969 0.01055523768 0.3063179472 -0.01173088113 -0.985018042 -0.1720518625
-0.240668163 -0.002390408382 0.3993377544 0.07638857673 0.9965521552 0.03238189822
-0.09903438903 0.2247646492 -0.02286828456 0.0941415903 -0.005538327669 0.9955434134
0.1729741387 1.079853677 0.02956020554 0.002604544814 0.01714275928 0.9998496598
-0.06992477113 1.021331321 0.02743863204 0.01450797291 -0.05015498077 -0.9986360682
-0.04109735832 0.01383664191 0.1950586783 -0.01505914274 0.9997098769 -0.01879851489
-0.2106711723 0.8181164574 0.1137953751 0.06711139414 -0.9569042095 -0.2825427307
-0.3480367196 0.6255631088 0.05190024548 0.9965092258 -0.001302349213 0.08347255154
0.3147769037 0.2777051542 -0.006754877969 -0.01284422159 0.02015207687 -0.9997144191
0.3202475152 0.07866990561 -0.004659567802 0.03197991841 0.1689961809 0.9850977493
-0.3448894607 0.5770739065 0.09731096851 0.9960245336 0.04177093243 -0.07867857195
0.07816790049 0.07267417258 -0.005000740278 0.01437471074 -0.2484832653 -0.9685295218
-0.3296850661 0.4321928857 0.2074777004 0.9997245886 0.003965245275 -0.02313058055
-0.232767167 1.226435719 0.0101044355 0.009645026114 0.1643688012 0.9863517986
-0.3756717457 1.165399967 0.3778437529 0.9017459261 0.1792909993 0.3933306781
0.4097039855 0.01932004609 0.1465162861 0.01090091467 -0.9998833512 0.01069831593
-0.3287749155 1.075380972 0.2517529871 0.9953364626 0.06392623057 0.0722410075
-0.3276427169 0.2217667866 0.3515232537 0.9998767932 -0.005279297986 0.01478267641
-0.273380569 0.003862430963 0.3407439121 -0.2172520078 -0.9701597909 -0.1076640392
0.3641903232 -0.02211595958 0.4465006461 0.02835136283 0.9960061817 0.08466337
-0.3346778827 1.022347702 0.343552629 0.9746464052 0.1052622466 0.1974442812
0.01135971415 -0.01605459588 0.4450140986 0.07478354181 0.9778277896 0.1956022386
-0.3290762504 0.9145956405 0.3444605639 0.9946021711 0.04264170737 0.094594958
-0.3407874863 1.230510866 0.155268652 0.9903445755 0.138149522 0.01150353833
-0.08497256137 0.9807880004 0.02933274005 -0.02932298181 0.1067644232 0.9938518605
-0.2389190147 0.1174757446 -0.004032686959 0.1139647796 0.07271329525 0.9908202691
-0.3886969843 1.224700535 0.3554412263 0.7867458578 0.2780611701 0.5511015704
0.4240989931 0.1250069431 -0.009153411678 0.05964691514 -0.06501134023 -0.9961002817
-0.3287660578 0.7654095056 0.1931440271 0.971374155 -0.1053938968 -0.2128952267
-0.1747002955 0.7803692114 0.3433448646 0.5133023895 0.05231681824 -0.8566117017
-0.3173244172 0.02857886787 0.06236728589 0.649664675 0.7033256731 0.2885633511
0.4576114419 0.03732366643 0.01109126538 0.2423837608 -0.6810112374 -0.6909947952
0.2883270612 0.791366423 0.1414848735 0.1025180987 0.9929140737 0.06009726783
0.01323297163 0.7195884513 0.1121049702 -0.02862160164 -0.8211987188 -0.5699240898
-0.3316630264 0.8097047026 0.06425610064 0.97031544 -0.03086692716 0.2398649197
0.06136186175 0.01518485656 0.1497727753 0.02239542392 -0.9991570399 0.03440428171
-0.05303343546 1.088046676 0.0260755186 -0.02121072977 0.06268986194 0.9978076399
0.4053807486 0.02908364515 0.0156657728 0.06849040104 -0.8220335595 -0.5653051318
-0.1426002664 1.217723844 0.01165022063 -0.01098852701 0.1881091605 0.982086654
-0.2864155949 0.8290488743 0.01096935204 -0.09101883669 -0.1078425996 -0.9899926995
0.3717455269 1.22493413 -0.009170153608 0.2599151707 0.2061429507 0.9433711825
-0.1209248812 0.2623946634 -0.0195644214 0.09440674181 -0.03204340679 0.9950178828
-0.3284772455 0.573014218 0.3029631309 0.999781241 0.0008469758188 -0.02089863247
-0.1960077212 -0.003323022531 0.4432978547 -0.01835009076 0.9979171449 0.06184372348
0.1146569964 0.01206760394 0.1018455257 0.002500703335 -0.9994983426 -0.03157229053
-0.3276612522 0.7277551278 0.3130425633 0.9799901868 -0.1688795867 0.1053514068
0.3252701781 0.4280200343 -0.008318680988 -0.06458028868 0.0739379488 0.9951696167
-0.3284614312 0.07445806325 0.4437404594 0.9704607596 0.2410192244 -0.01075395716
-0.3277148582 0.3759611906 0.4023022289 0.9999874546 0.001221318078 -0.004857884928
-0.3275849781 0.1850922276 0.3020530713 0.9999638832 0.007101399109 -0.004669298357
0.1641552025 0.8290485769 0.05756663552 -0.04356945954 0.6164716173 0.7861707494
-0.03790676396 0.06740105273 -0.008558091568 -0.05388281414 0.4426799765 0.895059261
0.3785791029 0.4264903557 -0.003832479404 -0.04197421886 0.02322675232 0.9988486787
-0.3284130328 0.229240837 0.4008966726 0.9992740954 -0.01668251377 0.03424873589
-0.3558862284 1.055983081 0.3894447801 0.9196486409 0.1534373996 0.3615291713
-0.08063916229 0.8714135802 0.06237648909 -0.1509436631 0.3764434479 0.9140603597
-0.3346740932 0.6241678011 -0.005507607095 0.785469697 -0.02404823967 0.6184327265
0.08175998991 0.573989317 0.2194246182 -0.627031013 0.1282266651 -0.7683684215
-0.2285577099 0.8118575816 0.1558191551 0.02464220237 -0.9918119912 -0.1253065682
-0.3292736387 0.508103474 0.2567028103 0.9997293242 0.007644583538 -0.02197359246
-0.3281884519 0.2789637756 0.2955207393 0.9999482181 0.004113409253 -0.009308118071
0.362450662 0.01653735814 0.1057572352 -0.01099255665 -0.9968775922 -0.07819354148
-0.3417249508 0.7174286042 0.05125929517 0.9584328372 -0.2616028527 0.1138878572
0.4159834734 1.125862672 -0.01149867614 -0.05995447472 -0.1328196547 0.9893252247
0.3553041125 1.170093213 0.005055971731 0.260422362 0.08827271231 0.96145105
-0.03553712669 0.7307326286 0.3454695228 -0.04931766018 -0.6441638827 0.7632959194
-0.2916575196 0.1300485566 -9.089826764e-05 -0.4930232746 -0.01912633522 -0.8698058599
-0.2396168015 0.01069112629 0.2396715019 -0.2349659827 -0.9719292365 0.01202273939
0.4074897472 0.1668741273 -0.009251071724 -0.005228982958 0.01355843492 0.9998944077
-0.3376572837 0.3793649474 0.0685030126 0.9898349323 -0.01400715147 0.1415295251
-0.37449966 1.255807794 0.3609657798 0.7839319348 0.2885343608 0.549725972
-0.3306178711 0.1311901433 0.05164093778 0.9492705894 0.09660776048 0.2992528843
0.2728990031 -0.01876211757 0.4487944463 0.02795381238 0.9995614535 0.009771645277
0.1815779566 0.01347714937 0.04699625217 -0.08152520222 -0.9223170346 -0.3777365868
-0.2302272952 0.5636780718 -0.03021689635 -0.0367897421 -0.06988678738 -0.9968762972
0.05955435493 1.079507019 0.02889699747 0.01332887619 -0.02493548183 -0.9996002015
-0.2214832749 0.1838100037 -0.004323695793 0.09008747456 0.0081259954 0.9959007055
